# .PCD v0.7 - Point Cloud Data file format
VERSION 0.7
FIELDS x y z rgba
SIZE 4 4 4 4
TYPE F F F U
COUNT 1 1 1 1
WIDTH 1125
HEIGHT 1
VIEWPOINT 0 0 0 1 0 0 0
POINTS 1125
DATA ascii
0.51266402 -3.1130719 -21.783062 4278190335
-2.0001659 1.404712 -14.767824 4278190335
6.7463121 -3.6876481 -18.047037 4278190335
-0.63663602 0.788854 -12.72737 4278190335
-1.09217 1.57487 -13.307602 4278190335
4.8880062 -3.7905159 -23.330873 4278190335
-2.25175 -0.095880002 -12.928636 4278190335
5.0316639 0.202204 -14.620274 4278190335
5.6697741 1.189338 -12.741544 4278190335
-2.661406 -1.229558 -15.52046 4278190335
-2.639698 -1.4668961 -13.773498 4278190335
-2.7976601 -0.128106 -13.750494 4278190335
-1.542402 0.62718397 -17.314232 4278190335
-2.0947959 0.56048602 -20.093489 4278190335
-2.2294879 1.507002 -15.861078 4278190335
-2.6736679 -2.7388501 -18.202015 4278190335
-2.31095 0.78353202 -15.697384 4278190335
-2.08024 1.055992 -15.822974 4278190335
-1.533816 1.013992 -16.338531 4278190335
-2.3727701 1.340722 -15.102022 4278190335
-1.800274 1.302514 -17.893467 4278190335
-2.7253301 -1.35979 -15.60153 4278190335
-2.0956459 0.99444002 -16.662052 4278190335
-2.059828 1.487988 -18.240597 4278190335
-1.711076 1.630574 -16.650839 4278190335
-1.45627 0.76279998 -16.735041 4278190335
0.049888 -3.3071361 -18.947109 4278190335
-2.07757 0.97501397 -16.658894 4278190335
-1.939492 1.352952 -18.194584 4278190335
-5.324966 -2.88485 -15.053796 4278190335
-2.096782 0.57386601 -20.076 4278190335
-2.507884 -1.2985179 -22.068031 4278190335
-1.4845099 1.608704 -16.350531 4278190335
-2.139904 -0.161594 -15.948832 4278190335
-2.69612 -1.279314 -18.179195 4278190335
-2.0370181 1.0439039 -15.826442 4278190335
-3.0159941 -1.420488 -22.491121 4278190335
-2.7763281 -1.308338 -16.424303 4278190335
5.4389219 -2.453696 -5.9317222 4278190335
-3.070796 -1.485482 -22.592924 4278190335
-2.6873119 -2.7249479 -18.193867 4278190335
-4.8189139 -2.906986 -15.02584 4278190335
-2.6610661 -2.5344119 -13.755106 4278190335
-2.64872 -0.30112201 -13.239738 4278190335
-2.5280919 -1.3493381 -16.568623 4278190335
-2.043782 1.445962 -18.393471 4278190335
2.514864 -3.6751981 -21.827929 4278190335
4.73208 1.010462 -13.972448 4278190335
-2.7800839 -0.108372 -16.905212 4278190335
-2.58634 -0.106806 -16.676146 4278190335
-2.634464 -0.54141599 -15.780636 4278190335
-2.524796 -0.113712 -18.023432 4278190335
-2.186116 1.452852 -14.170544 4278190335
6.547646 0.18087199 -14.74361 4278190335
-2.65152 -1.0152299 -14.275066 4278190335
-2.6048319 -0.108302 -18.161114 4278190335
-2.1137259 -0.13044199 -16.299875 4278190335
-2.6481941 -0.739784 -15.127182 4278190335
5.530416 -0.65879601 -12.975972 4278190335
-2.4881821 -0.116464 -21.592381 4278190335
-2.6720741 -0.79685998 -13.580764 4278190335
-2.434586 -0.54678798 -15.846032 4278190335
-2.1554501 -2.8436041 -23.357292 4278190335
-2.2973199 0.71613997 -15.16335 4278190335
-2.020494 1.61203 -20.119698 4278190335
4.8664861 -3.684932 -14.05778 4278190335
-2.655812 -0.87459397 -15.988882 4278190335
-2.669992 -1.235296 -16.637856 4278190335
-1.481338 0.59421599 -17.22401 4278190335
-2.6412899 -0.62088197 -16.072954 4278190335
-1.52905 1.050076 -15.839348 4278190335
6.0646362 -2.002152 -12.588336 4278190335
-1.672814 1.604188 -16.624123 4278190335
-2.6803739 -1.256932 -16.387981 4278190335
-2.6284039 -0.16542 -15.138904 4278190335
1.886194 -3.573462 -22.140989 4278190335
-2.6436341 -0.56506401 -15.011608 4278190335
4.931994 -3.7263501 -14.774738 4278190335
-1.974974 1.442118 -14.70777 4278190335
1.87278 -3.540868 -22.242584 4278190335
-1.427054 1.61561 -16.673525 4278190335
6.52422 0.57162601 -13.719826 4278190335
-0.71430802 -3.3688519 -18.396061 4278190335
-2.756386 -2.6708961 -16.407225 4278190335
-0.43538001 -2.7961979 -23.369081 4278190335
-2.4996901 -0.107848 -21.621923 4278190335
-1.806102 1.592418 -13.372972 4278190335
0.94014603 -3.474864 -22.298784 4278190335
-3.048218 -1.987134 -18.072149 4278190335
-2.3317001 -2.819406 -20.498379 4278190335
0.90033603 -3.4131441 -21.575535 4278190335
4.376646 1.10856 -13.765058 4278190335
4.6258659 1.000982 -13.902146 4278190335
-2.718374 -1.336558 -14.762286 4278190335
-1.406708 1.595168 -16.627501 4278190335
-2.3250079 -2.840596 -20.546223 4278190335
-2.0840621 0.56063801 -20.11622 4278190335
-2.323292 0.76266199 -15.271596 4278190335
-2.0754919 0.57411599 -20.089338 4278190335
-2.2418399 1.11937 -21.08947 4278190335
5.862608 -2.6749139 -14.219922 4278190335
-2.6996701 -1.192156 -12.75563 4278190335
-2.0068841 1.594974 -20.099073 4278190335
-1.427974 0.74466598 -16.702692 4278190335
2.4461999 -3.657516 -22.515001 4278190335
0.90225202 -3.432606 -21.596796 4278190335
4.945992 -3.7655439 -14.03362 4278190335
-1.913848 1.632164 -14.43073 4278190335
0.68798 -0.91320598 -21.193136 4278190335
-1.53839 1.059042 -15.850564 4278190335
-2.603514 -1.337 -13.76759 4278190335
-1.87796 0.93529397 -20.105333 4278190335
4.8842721 -3.7154379 -14.761152 4278190335
6.4067202 -3.6584239 -12.371588 4278190335
-1.98809 0.485102 -12.93891 4278190335
-2.3270521 0.76824802 -15.1735 4278190335
-2.245898 -0.110246 -12.882108 4278190335
-1.8361681 0.2714 -20.769213 4278190335
1.1569541 -0.62706399 -22.269258 4278190335
6.43577 -2.9036419 -14.365156 4278190335
-2.215358 -2.8849499 -23.622227 4278190335
2.4671681 -3.505096 -18.901939 4278190335
-2.4185181 0.673958 -16.370464 4278190335
-1.798326 0.62700802 -13.256144 4278190335
6.4175639 -3.6301 -14.342256 4278190335
1.993368 -3.7417641 -22.398502 4278190335
-1.544036 0.64837003 -17.319313 4278190335
-2.1966619 -1.813482 -23.685463 4278190335
0.116744 -5.188612 -27.346546 4278190335
-2.2380421 -0.426772 -15.49317 4278190335
-1.663806 -1.15018 -12.774388 4278190335
-2.262646 0.57797801 -16.207502 4278190335
-0.37706 -0.41372001 -12.876346 4278190335
-1.73675 0.60373598 -13.263996 4278190335
3.2197139 0.225234 -14.706166 4278190335
1.6581 -3.434186 -24.072063 4278190335
-1.66914 -1.152066 -12.770504 4278190335
6.4555559 -0.035154 -14.70731 4278190335
-2.346396 -1.462706 -20.279251 4278190335
-2.741132 -1.236282 -21.995319 4278190335
-4.996624 -3.05319 -19.17433 4278190335
1.788166 -3.490592 -18.996367 4278190335
-2.07112 0.97744602 -16.649149 4278190335
-2.6635799 -1.231914 -15.534478 4278190335
-1.528042 1.008804 -16.336361 4278190335
-3.090034 -2.0133619 -18.114086 4278190335
-2.707212 -1.268702 -18.192177 4278190335
-2.610764 -2.637254 -21.968159 4278190335
6.3529038 0.89231199 -13.782674 4278190335
-2.1561761 -0.103884 -20.103313 4278190335
0.93056202 -3.488512 -22.291124 4278190335
-2.63099 -0.47307399 -15.215152 4278190335
-2.6561899 -0.87638199 -15.987092 4278190335
-2.6625161 -1.3603539 -13.931126 4278190335
-0.67499202 -3.3023801 -18.337852 4278190335
-1.96039 1.560244 -14.71628 4278190335
3.5629859 1.418026 -14.088262 4278190335
-5.0309801 -3.067502 -19.189772 4278190335
-1.1945699 0.84233201 -13.256684 4278190335
-2.2427821 -0.106062 -12.874336 4278190335
-2.6932981 -1.2522939 -15.668818 4278190335
-2.6388681 -1.25388 -16.325409 4278190335
-2.6267281 -0.54477799 -15.777102 4278190335
-0.68967599 -3.3052959 -18.342056 4278190335
-1.865702 1.346118 -13.641474 4278190335
-3.000556 -1.3534499 -22.611076 4278190335
-2.6659501 -0.51178998 -14.856308 4278190335
6.8963099 -2.0334339 -18.047403 4278190335
-2.843416 -0.344098 -14.135012 4278190335
-2.318428 0.76724201 -14.272932 4278190335
-2.644248 -0.55771601 -15.761872 4278190335
-0.66089201 -3.2812779 -18.311523 4278190335
-2.660944 -2.707376 -18.17057 4278190335
5.1325479 -1.150732 -23.503098 4278190335
4.9398699 -3.779942 -14.050038 4278190335
-2.2263701 1.518574 -15.841226 4278190335
-2.24895 -0.094446003 -12.889256 4278190335
-2.641942 -1.238798 -18.070974 4278190335
-2.651298 -0.34471801 -14.096824 4278190335
-2.318084 -0.95851201 -15.517544 4278190335
3.810276 -1.51912 -23.712408 4278190335
-2.3533061 0.65428001 -18.067303 4278190335
-2.65467 -0.75264198 -15.130138 4278190335
-2.251312 -1.382058 -20.275377 4278190335
-5.089962 -3.043448 -15.096686 4278190335
-4.9315419 -3.0178859 -19.057325 4278190335
-2.457386 0.70485198 -16.41049 4278190335
-4.9679379 -3.036438 -19.016745 4278190335
-4.945652 -3.0223279 -19.111694 4278190335
-2.693048 -1.265622 -18.173813 4278190335
-2.6441181 -0.31954801 -14.164538 4278190335
-2.222868 -1.4426939 -20.032156 4278190335
-2.62062 -0.26352999 -14.816848 4278190335
-2.6109779 -0.13532799 -15.694432 4278190335
-2.6198721 -0.208496 -14.677028 4278190335
-2.01018 1.351536 -14.364734 4278190335
-2.6392341 -0.471028 -15.218328 4278190335
-2.637234 -1.119714 -17.45804 4278190335
-2.56566 -0.111588 -16.660686 4278190335
-2.5879159 -0.11265 -16.653072 4278190335
3.6391301 -1.341006 -23.3193 4278190335
-2.6496241 -1.167222 -13.732706 4278190335
-2.702528 -1.197 -13.72023 4278190335
4.9436498 -3.8347001 -21.67778 4278190335
-2.6553581 -0.64934599 -15.666196 4278190335
-2.13714 0.99455798 -14.165386 4278190335
-1.9284281 0.949426 -20.144733 4278190335
-1.4463561 0.76018 -16.711712 4278190335
-2.284236 0.78059798 -15.688722 4278190335
-0.91074997 0.80230403 -12.909808 4278190335
-2.6380379 -0.54087001 -14.92351 4278190335
0.659706 -0.790416 -20.211498 4278190335
-2.630542 -0.28917599 -15.21457 4278190335
-0.80603802 -0.122726 -12.897802 4278190335
3.7919741 -1.206974 -23.440615 4278190335
-2.073292 1.0511481 -15.810396 4278190335
3.71877 0.144076 -23.289589 4278190335
-2.4239299 0.82270801 -14.22335 4278190335
3.1732199 0.0086359996 -23.523823 4278190335
3.702276 -0.103406 -23.275999 4278190335
3.71821 -0.103866 -23.25729 4278190335
6.2389579 -3.5493259 -13.65378 4278190335
-1.800208 1.6734 -20.827391 4278190335
-1.597644 1.48517 -20.273533 4278190335
4.0627022 0.279524 -14.668034 4278190335
6.7492962 -3.7625301 -18.030642 4278190335
4.2362342 -3.7024479 -14.815532 4278190335
4.0895581 -3.5646279 -14.811496 4278190335
1.271946 -0.72382402 -23.295532 4278190335
-0.53544801 0.23883601 -23.650089 4278190335
-2.645072 -1.1317101 -17.456911 4278190335
-2.69396 -1.331448 -14.754352 4278190335
-2.032686 1.6144201 -20.155535 4278190335
1.25765 0.37077001 -15.49858 4278190335
4.5415082 0.978544 -13.899782 4278190335
1.486482 0.50326198 -15.419062 4278190335
-2.286236 1.49949 -15.120548 4278190335
-2.147162 0.65782201 -13.4266 4278190335
0.40770799 -0.83352399 -12.839654 4278190335
0.64509398 0.122332 -12.874888 4278190335
2.1708059 -3.79618 -26.886057 4278190335
-2.1722441 1.004902 -14.170666 4278190335
-2.7520199 0.91823202 -14.38055 4278190335
-2.0652201 0.33953601 -21.441029 4278190335
-0.430078 -2.811172 -23.386971 4278190335
0.58547801 0.123428 -12.888128 4278190335
1.218706 0.041632 -15.567812 4278190335
-2.363718 0.73878402 -15.092302 4278190335
-1.538488 1.0117199 -16.341446 4278190335
-2.641582 -0.75092399 -16.883411 4278190335
-1.9017119 0.93010801 -20.145489 4278190335
1.97114 0.092359997 -24.134369 4278190335
1.267332 0.37267399 -15.530396 4278190335
1.24011 0.029862 -15.58201 4278190335
2.5665121 -3.658586 -21.75259 4278190335
0.26773399 -0.79038203 -12.844716 4278190335
-2.5307801 -1.223022 -15.606422 4278190335
-2.72838 -0.90908998 -15.99778 4278190335
-2.480366 -1.422996 -23.588282 4278190335
4.250432 -3.7245941 -14.792052 4278190335
6.7891421 -3.737504 -18.042679 4278190335
6.8641338 -2.0418999 -18.045765 4278190335
-1.99297 1.583198 -20.097231 4278190335
-1.646054 0.71354002 -13.277266 4278190335
0.48591599 -0.086514004 -12.85835 4278190335
6.7378821 -3.7130561 -18.024948 4278190335
0.61339998 -0.85524797 -12.831064 4278190335
1.8389241 -3.554044 -18.999899 4278190335
7.0109062 -1.745052 -18.162666 4278190335
6.8933582 -2.0548019 -18.06522 4278190335
-2.202208 1.473078 -14.77223 4278190335
-2.1827841 -1.344172 -20.083685 4278190335
0.41559801 -0.39521599 -12.845128 4278190335
-2.6867681 -1.359484 -13.939506 4278190335
-1.751914 1.55238 -13.360118 4278190335
4.4044881 0.94316798 -13.683006 4278190335
-2.0822699 0.52107 -20.170755 4278190335
-2.1312039 1.436456 -14.77483 4278190335
-1.6184959 -0.16556001 -12.836328 4278190335
-3.039314 4.3374181 -23.577032 4278190335
4.739964 1.331906 -13.61518 4278190335
-1.14571 -0.71767402 -12.880396 4278190335
-2.6461141 -0.696742 -15.78233 4278190335
-1.123156 0.53092802 -13.139806 4278190335
-2.630022 -0.80961198 -16.369362 4278190335
-2.3866839 0.78227001 -14.946516 4278190335
4.2090678 -0.25709 -15.17346 4278190335
-1.804374 1.470628 -19.799042 4278190335
-2.3157761 0.71345598 -16.884541 4278190335
-2.4102099 0.68098199 -18.159279 4278190335
-2.6584101 -1.248974 -18.153656 4278190335
2.2883601 -3.4255619 -25.325653 4278190335
-2.6487579 -0.75265598 -15.136862 4278190335
-2.6640079 -0.88478398 -15.976636 4278190335
-2.6916039 -1.270064 -18.138603 4278190335
-2.57447 0.80377197 -17.151815 4278190335
-1.871812 0.60385603 -15.037536 4278190335
4.3366342 -3.740046 -22.250978 4278190335
-4.9573421 -3.013552 -19.041458 4278190335
-2.6379361 -0.78930998 -13.217356 4278190335
-1.877528 0.93926001 -20.122009 4278190335
4.8946362 -3.77706 -14.056662 4278190335
-2.653476 -0.55496001 -15.776102 4278190335
-2.6406441 -0.74816602 -16.880173 4278190335
-2.675092 -0.795838 -13.681448 4278190335
-2.3102739 0.78029001 -15.693214 4278190335
-2.6823821 -0.53355002 -12.771084 4278190335
-2.5967481 -0.10932 -18.160673 4278190335
-2.6602981 -1.655028 -23.544424 4278190335
7.0061679 -2.1219039 -18.124607 4278190335
-2.4926779 -0.50660002 -18.012741 4278190335
-2.307292 -0.46327201 -16.156366 4278190335
6.823482 -1.734166 -24.167871 4278190335
4.5591741 -3.9253139 -22.417974 4278190335
-2.6164479 -0.811454 -15.653944 4278190335
0.88691199 -1.167582 -22.048147 4278190335
-2.5532379 -1.032566 -13.729026 4278190335
-1.999148 0.29015201 -21.086231 4278190335
5.6748099 -0.67139602 -12.90592 4278190335
-2.6823101 -2.7502799 -18.22114 4278190335
2.4978039 -4.594646 -29.465712 4278190335
-1.4524879 1.60018 -16.323561 4278190335
-2.24335 -2.849792 -23.621416 4278190335
2.5565159 -3.622884 -21.689672 4278190335
-2.6420341 -0.56421399 -15.937728 4278190335
1.8075 -3.5101459 -18.928099 4278190335
1.237888 0.039386 -15.576248 4278190335
2.4945941 0.2753 -21.642599 4278190335
-2.6144481 -0.33599401 -13.58605 4278190335
4.2494822 -3.7178259 -14.795948 4278190335
3.6154981 -1.368132 -23.355165 4278190335
0.41125199 -0.311304 -20.824747 4278190335
3.9616201 0.2359 -22.9883 4278190335
-2.6624539 -1.225644 -16.621956 4278190335
-0.177214 0.000114 -12.884966 4278190335
0.142066 -0.376064 -12.851424 4278190335
0.15598001 -0.308792 -12.855746 4278190335
-2.1100421 0.657888 -14.080112 4278190335
-1.52872 1.054126 -15.84083 4278190335
-2.6682861 -0.828408 -12.74227 4278190335
-2.660718 -0.795452 -13.680296 4278190335
-3.284374 -1.48842 -23.598661 4278190335
1.9267319 -3.4474919 -25.3029 4278190335
1.885558 -3.544642 -22.22703 4278190335
0.113954 -0.48285401 -12.834736 4278190335
-2.213062 0.77142602 -21.983847 4278190335
5.0238681 -3.820632 -21.646837 4278190335
-2.2347181 -0.10038 -12.877456 4278190335
0.49009001 -0.080346003 -12.858256 4278190335
0.382752 -0.043140002 -12.86676 4278190335
0.70011598 0.187666 -12.878436 4278190335
-1.463792 0.63731003 -16.785948 4278190335
0.502886 0.142802 -12.798434 4278190335
-2.68906 -1.277266 -15.70253 4278190335
-2.7068901 -1.185218 -14.795082 4278190335
0.23586001 -0.182678 -12.861386 4278190335
0.66983402 -0.081692003 -20.225922 4278190335
0.11548 -0.48095599 -12.852718 4278190335
-0.03455 -0.033856001 -12.876386 4278190335
-2.634408 -0.47292599 -15.21342 4278190335
2.5318921 -3.6455059 -18.391998 4278190335
0.236498 -0.182262 -12.881544 4278190335
0.18673401 -0.41694999 -12.846068 4278190335
-2.3300741 0.77145398 -14.478376 4278190335
0.41874999 -0.00041199999 -12.874268 4278190335
-0.44055 1.2648081 -23.513342 4278190335
-0.43503401 -2.8198919 -23.420265 4278190335
-2.6115119 -1.428156 -18.204451 4278190335
0.054924 0.29319599 -12.855162 4278190335
-4.8912678 -2.9929681 -18.449043 4278190335
-2.635138 -0.33707601 -13.22611 4278190335
0.31570601 0.152744 -12.839324 4278190335
-2.719938 -1.167892 -13.037656 4278190335
3.17274 0.028341999 -23.427355 4278190335
0.37378401 -0.042649999 -12.887934 4278190335
0.334032 -0.036068 -12.860876 4278190335
4.3833561 0.100496 -22.387691 4278190335
2.5392699 -3.65131 -18.404222 4278190335
0.113518 -0.48211199 -12.851634 4278190335
-1.933344 0.869142 -13.41945 4278190335
-2.69821 -1.257126 -15.671552 4278190335
0.47227001 -0.38617799 -12.851234 4278190335
1.69467 -0.050352 -15.780888 4278190335
0.40000001 -0.33898801 -12.842554 4278190335
3.1767499 0.41200799 -22.695435 4278190335
4.2405658 -3.7321019 -14.792624 4278190335
4.9690318 -3.8473339 -21.677767 4278190335
1.54178 0.489764 -13.994684 4278190335
-2.5965481 -1.329448 -13.766074 4278190335
-2.218724 -0.069374003 -12.904116 4278190335
-1.842266 1.6209919 -13.332124 4278190335
-0.183144 -0.0043720002 -12.88772 4278190335
0.10778 -0.42976001 -12.854704 4278190335
-0.054542001 -0.43398201 -12.880716 4278190335
4.318634 -3.7907281 -14.7551 4278190335
-5.382946 -3.0527861 -14.432288 4278190335
2.458132 -3.5753601 -21.6485 4278190335
-0.183988 -0.012106 -12.897594 4278190335
0.246748 -0.51750398 -12.850814 4278190335
0.30802599 0.14564399 -12.868584 4278190335
4.8775878 -0.222092 -14.574476 4278190335
0.48100799 -0.088192001 -12.85489 4278190335
-2.04264 0.705796 -13.443188 4278190335
-1.795554 0.73621398 -19.737474 4278190335
0.30354601 0.14609601 -12.87111 4278190335
-5.0276461 -3.005852 -14.451922 4278190335
3.7506521 0.142086 -14.059838 4278190335
4.775732 0.1948 -14.297772 4278190335
-2.283082 -1.077028 -12.520822 4278190335
-2.1571701 -0.099048004 -20.110323 4278190335
-2.590354 -0.107254 -18.178108 4278190335
-2.648494 -0.756284 -15.13267 4278190335
-2.206454 1.407936 -23.740915 4278190335
0.358208 -0.37052199 -12.851222 4278190335
0.64486802 -0.241138 -12.819708 4278190335
-2.596534 -0.148378 -16.350636 4278190335
-2.2050879 1.409814 -23.830873 4278190335
0.61330998 -0.85369599 -12.824872 4278190335
-2.5964401 -1.313352 -13.752864 4278190335
-2.618098 -0.130024 -15.669906 4278190335
3.7572379 -0.10316 -23.316225 4278190335
-2.79813 -0.34797001 -13.356744 4278190335
-2.632334 -0.61377603 -16.07933 4278190335
6.994266 -1.696072 -18.190617 4278190335
-2.6857979 -1.064266 -16.110455 4278190335
4.1805038 -1.259988 -23.399046 4278190335
-2.57095 -0.176626 -17.798073 4278190335
-2.1285059 0.56943399 -17.752405 4278190335
-2.054966 -1.388146 -21.272476 4278190335
-2.6507039 -0.56253201 -15.942954 4278190335
-2.442878 -0.85983598 -20.784056 4278190335
-2.259546 1.557234 -15.875164 4278190335
5.076942 -1.152992 -23.45289 4278190335
1.684962 -0.035206001 -15.778222 4278190335
-2.6864641 -0.93149799 -14.809442 4278190335
6.0635662 0.129088 -13.436654 4278190335
6.61305 -3.7424879 -12.54654 4278190335
6.6000218 -3.737926 -12.539358 4278190335
-1.707238 1.6105061 -20.911213 4278190335
6.9810281 -2.1717479 -18.122784 4278190335
-1.470152 1.627108 -16.690722 4278190335
-2.04651 1.045212 -16.366697 4278190335
5.7153201 0.112386 -13.491044 4278190335
-2.13746 0.732342 -21.74279 4278190335
-2.640312 -0.541044 -15.994454 4278190335
-2.615366 -0.233428 -15.658488 4278190335
-2.61959 -0.54362202 -16.642984 4278190335
6.2529721 -1.92118 -12.917594 4278190335
-2.905694 -1.26515 -17.679489 4278190335
5.3210778 -0.623806 -13.327698 4278190335
6.3516822 0.87682003 -13.410066 4278190335
-2.652914 -0.868002 -15.995088 4278190335
-2.670104 -1.06833 -16.090469 4278190335
-2.650912 -0.94551402 -16.24008 4278190335
4.3055582 0.233652 -21.552404 4278190335
-2.7902501 -0.79718202 -14.343478 4278190335
0.61823398 -0.55758601 -20.368647 4278190335
-2.8798521 -1.173158 -12.948684 4278190335
-0.67694199 -3.2812481 -18.270111 4278190335
-5.1144462 -3.0546379 -15.102622 4278190335
-1.939016 0.87262201 -13.420704 4278190335
2.514106 -0.104976 -15.66488 4278190335
3.376174 0.361186 -14.069806 4278190335
-2.363656 1.351756 -15.091932 4278190335
-2.6611519 -0.79324597 -13.20857 4278190335
1.489302 -0.086361997 -14.713978 4278190335
0.053936001 0.29325199 -12.85325 4278190335
-2.6198621 -0.23866799 -14.06444 4278190335
-2.232646 -0.103174 -12.86661 4278190335
-0.144362 0.26805401 -12.873746 4278190335
1.6631041 -0.023874 -14.60879 4278190335
-1.866708 1.3365541 -14.050928 4278190335
0.0572 -3.3318839 -19.008562 4278190335
3.4411981 0.084720001 -14.080258 4278190335
-2.0924699 0.54072201 -20.168089 4278190335
-2.0290439 0.62084597 -13.435978 4278190335
3.6542039 0.43244401 -21.814484 4278190335
0.343918 -0.2124 -12.85071 4278190335
-1.51467 1.63473 -15.784028 4278190335
7.4877162 -3.32728 -18.203241 4278190335
-4.8904462 -2.9190741 -14.384476 4278190335
-1.522824 1.05173 -15.842454 4278190335
-2.15646 1.434076 -14.75369 4278190335
-1.942222 1.390026 -14.064262 4278190335
-1.947868 1.39283 -14.386556 4278190335
-0.411392 -0.45031199 -12.872872 4278190335
-2.3470781 0.785622 -14.310874 4278190335
-2.649838 -0.184352 -13.002294 4278190335
-2.732326 -0.47268999 -12.735832 4278190335
-2.6323421 -0.29030201 -13.24173 4278190335
-2.0516181 0.62895399 -13.423548 4278190335
0.0144 -0.346982 -12.86445 4278190335
-0.039845999 -0.44066799 -12.855818 4278190335
-2.665884 -1.014976 -14.277832 4278190335
1.00316 0.66715002 -20.527742 4278190335
-1.74192 1.8554699 -15.982902 4278190335
-2.176774 1.449522 -14.762698 4278190335
-2.6860621 -1.2488919 -15.657012 4278190335
0.248282 -0.52266598 -12.844484 4278190335
-2.6508441 -0.83573002 -13.969444 4278190335
-1.246654 0.81806999 -13.382152 4278190335
-0.106454 -0.34667999 -12.862688 4278190335
-1.956634 0.595348 -13.471612 4278190335
1.503288 -0.083506003 -14.716436 4278190335
-0.18068799 -0.001634 -12.887238 4278190335
-2.6255939 -0.096054003 -13.943646 4278190335
3.385566 0.35893399 -14.062518 4278190335
0.3642 -0.373162 -12.849246 4278190335
3.7441959 0.77900398 -20.90428 4278190335
0.33855 -0.208864 -12.877882 4278190335
-1.585718 0.35060799 -12.80891 4278190335
-0.40745401 -0.46116799 -12.859922 4278190335
0.80973202 1.224324 -20.41506 4278190335
-2.3823221 0.78818202 -14.580938 4278190335
-0.301328 -0.311432 -12.853788 4278190335
0.009842 -0.34862 -12.868566 4278190335
-0.039625999 -0.43653199 -12.864826 4278190335
-0.46698001 0.33484599 -12.84892 4278190335
-0.60240799 -0.28517601 -12.882586 4278190335
-0.61555201 -0.355492 -12.87806 4278190335
0.100756 -0.004032 -12.866196 4278190335
1.539528 0.49511799 -13.994828 4278190335
-2.780766 -2.699646 -16.434338 4278190335
0.247188 -0.51676399 -12.846914 4278190335
-0.111492 -0.49272001 -12.864598 4278190335
-2.3562059 -0.71633202 -12.842088 4278190335
-0.00059000001 -0.34576201 -12.882282 4278190335
-0.38636401 0.20782401 -12.846604 4278190335
-1.431406 0.87313598 -13.323826 4278190335
-2.2209361 0.73403603 -14.227532 4278190335
1.525268 -0.084246002 -14.721614 4278190335
0.1168 -0.48421201 -12.849262 4278190335
0.81807202 -0.94192398 -20.452341 4278190335
-0.54501802 0.22989801 -12.847268 4278190335
1.826924 -3.5186679 -18.991096 4278190335
-0.62404197 0.752608 -12.747862 4278190335
-2.7700019 -1.345838 -14.764048 4278190335
-0.61760598 -0.35362399 -12.878614 4278190335
-1.904044 0.83870202 -13.42667 4278190335
-0.6534 -0.386554 -12.882974 4278190335
-1.459794 0.81197202 -13.386652 4278190335
2.5137899 0.0063720001 -14.12225 4278190335
0.120096 -0.48790199 -12.846158 4278190335
-0.4558 0.85322398 -12.730574 4278190335
-1.901794 0.78427398 -13.424954 4278190335
-0.643682 0.79945999 -12.679084 4278190335
3.3117959 0.100994 -14.099034 4278190335
-0.27363801 0.095362 -12.879086 4278190335
-0.87502199 -0.225036 -12.8388 4278190335
5.719574 0.74349999 -13.501572 4278190335
0.30968601 0.15395799 -12.79031 4278190335
1.890528 0.284776 -15.446154 4278190335
-0.064475998 -0.43460399 -12.841714 4278190335
1.323318 0.57238799 -14.899062 4278190335
0.74699801 1.49421 -21.380751 4278190335
-2.1539221 -0.098127998 -20.0965 4278190335
2.7135041 -1.416796 -23.980719 4278190335
-2.513324 -1.167972 -17.973507 4278190335
6.7958961 -1.668696 -24.072117 4278190335
-3.93028 -1.72409 -25.083485 4278190335
-2.4575961 0.69144797 -18.219135 4278190335
-2.476768 -1.402034 -20.674986 4278190335
-2.626368 -0.28881201 -13.252408 4278190335
-1.539462 0.70057398 -19.373774 4278190335
-3.2686181 -1.504612 -23.3785 4278190335
-2.3020279 -2.89766 -23.757397 4278190335
6.4392338 -3.4536519 -12.455568 4278190335
5.001524 -3.820698 -21.656412 4278190335
-4.945076 -3.0155859 -19.095295 4278190335
-1.4918621 1.700788 -16.763084 4278190335
0.63542002 1.458178 -20.483509 4278190335
4.2104039 -3.6838019 -14.04328 4278190335
-1.046532 0.25595599 -12.888878 4278190335
-2.7308481 -0.72911602 -16.370325 4278190335
-2.2967341 0.64994401 -16.276154 4278190335
-0.155726 0.270246 -12.85663 4278190335
-0.61687201 -0.35704601 -12.868242 4278190335
-1.540542 1.021278 -16.351566 4278190335
-0.00337 -0.011078 -12.916318 4278190335
4.225924 -3.703928 -14.038622 4278190335
-2.2950959 1.6210279 -15.034934 4278190335
-2.0581059 1.0493619 -16.373705 4278190335
-2.6085939 -0.223242 -15.65416 4278190335
-1.8374619 1.30136 -14.102716 4278190335
0.71467 0.224684 -20.547915 4278190335
-2.1610439 1.4356281 -15.819142 4278190335
-2.9585681 -1.27645 -15.305846 4278190335
-1.456992 0.77438599 -16.717623 4278190335
-0.26931199 -0.33951399 -12.870766 4278190335
-1.9231679 1.639872 -14.411228 4278190335
-2.486624 0.81966001 -14.829168 4278190335
-2.8053341 -2.724122 -16.668652 4278190335
-2.3792241 0.78633797 -14.584426 4278190335
5.5376158 -0.65662998 -13.149188 4278190335
0.0072039999 -0.34835601 -12.849418 4278190335
-2.151094 1.005952 -14.167122 4278190335
0.821926 1.2636321 -20.530115 4278190335
-2.642312 -1.234988 -17.459873 4278190335
5.822928 -1.3891439 -13.232972 4278190335
5.4688382 0.732072 -12.575366 4278190335
-0.411722 -0.45455801 -12.87677 4278190335
-1.8773299 2.5070479 -19.904026 4278190335
-2.651082 -0.50264198 -15.666704 4278190335
-0.36855999 0.205736 -12.875892 4278190335
-0.38004199 0.186058 -12.96072 4278190335
6.1221862 0.86606997 -12.350028 4278190335
-0.046638001 -0.43584201 -12.866484 4278190335
-2.6808579 -0.42429399 -14.98689 4278190335
-4.9340739 -2.9594021 -14.405854 4278190335
-2.6487679 -0.877958 -14.28197 4278190335
-2.288564 0.78404802 -15.465378 4278190335
-0.87041998 -0.69776797 -12.860766 4278190335
-0.29949799 -0.31559601 -12.86329 4278190335
-2.1501119 1.423774 -14.765438 4278190335
4.2273421 -3.7350819 -14.768672 4278190335
-0.869964 -0.69748801 -12.867094 4278190335
1.422904 0.423114 -14.03479 4278190335
-0.87160403 -0.68796802 -12.882384 4278190335
0.075002 0.28398401 -12.857864 4278190335
-0.309172 -0.32786399 -12.713406 4278190335
-2.661288 -0.75225002 -14.372424 4278190335
-1.486434 0.58827198 -17.235754 4278190335
-2.618186 -0.248274 -16.408312 4278190335
5.5497422 -0.017797999 -12.373938 4278190335
-2.348228 1.516308 -24.641544 4278190335
-2.590384 -0.24021199 -16.392496 4278190335
0.81630802 -1.003262 -20.772121 4278190335
-1.845336 0.92603803 -20.074919 4278190335
-2.6733739 -0.82336599 -16.386532 4278190335
-1.472052 1.567944 -16.33416 4278190335
-0.229252 0.10385 -12.90161 4278190335
-1.9590859 0.68487799 -13.446102 4278190335
-2.1143119 2.8936801 -20.655382 4278190335
-1.446246 0.76382202 -16.71417 4278190335
-2.361408 0.76779002 -15.279954 4278190335
-2.6922579 -0.910164 -15.982784 4278190335
-4.6606741 -2.8696179 -18.825218 4278190335
-1.877072 1.339178 -13.471822 4278190335
-2.6399381 -0.703798 -16.335356 4278190335
-2.265028 0.75306797 -14.220006 4278190335
-2.176362 -0.74092001 -20.122545 4278190335
-2.46504 -1.388148 -23.503546 4278190335
-0.055950001 -0.43397599 -12.866974 4278190335
6.9054799 -3.8320739 -18.087425 4278190335
0.0047820001 -0.67716998 -12.862738 4278190335
-2.0320001 1.615564 -20.276735 4278190335
-3.0847499 -1.394488 -22.882004 4278190335
-2.721066 -1.54585 -24.418678 4278190335
-2.601088 -0.118756 -15.521564 4278190335
-0.28354001 0.19886801 -12.873954 4278190335
-2.0925779 1.061052 -15.807938 4278190335
6.0441542 -1.55801 -12.984834 4278190335
1.258656 0.773058 -20.617252 4278190335
-1.5389659 1.058102 -15.7904 4278190335
-2.856384 4.137044 -23.123285 4278190335
-2.606118 -1.101562 -16.595196 4278190335
-2.302182 0.78820997 -15.476124 4278190335
-2.6660039 -1.068652 -16.090427 4278190335
-2.6758399 -0.847776 -14.09451 4278190335
2.568928 0.14733399 -14.954878 4278190335
-1.07472 -0.131138 -12.888066 4278190335
-1.682212 1.612978 -20.75732 4278190335
1.191618 0.481922 -20.416595 4278190335
-2.0908799 1.058544 -15.801452 4278190335
-2.1992381 1.463492 -14.744984 4278190335
-1.843424 1.313434 -14.099138 4278190335
0.90148002 -3.3860519 -21.507921 4278190335
-2.295486 0.777264 -15.69272 4278190335
-0.87613797 0.046691999 -12.869858 4278190335
0.74967599 0.3524 -15.769112 4278190335
-0.31140199 -0.31292 -12.862546 4278190335
0.057122 -3.322346 -18.979399 4278190335
0.89029801 -1.126254 -21.414108 4278190335
0.248872 -2.85168 -23.4415 4278190335
-2.0804141 1.3577501 -14.347382 4278190335
-2.5371959 -0.10958 -16.601442 4278190335
-2.6840279 -1.2548259 -18.200293 4278190335
-0.460008 0.32749799 -12.898922 4278190335
-1.483798 0.60059202 -17.229837 4278190335
-2.7067621 -0.87967199 -14.055534 4278190335
-1.427484 1.568478 -16.293608 4278190335
-0.181106 -0.001986 -12.89071 4278190335
-1.077216 -0.209244 -12.892738 4278190335
-1.518896 1.039028 -15.770988 4278190335
-2.5721321 -0.14767399 -16.370386 4278190335
-1.535328 1.061438 -15.847408 4278190335
0.294496 -3.033298 -20.479935 4278190335
-2.826586 -1.34328 -21.767422 4278190335
-0.91096199 -0.69908202 -12.848876 4278190335
-2.641978 -0.245722 -16.418922 4278190335
-1.143514 -0.71291 -12.877428 4278190335
-2.587636 -0.15369999 -15.653652 4278190335
-2.6408739 -0.14084201 -14.798082 4278190335
-0.063830003 -3.26105 -11.070604 4278190335
-0.78968799 -0.148982 -12.889542 4278190335
-0.98474401 0.051913999 -12.877614 4278190335
-2.5755081 0.69209403 -15.009934 4278190335
0.80345398 1.271636 -20.50564 4278190335
-2.6240261 -0.47565401 -17.133846 4278190335
-1.139106 -0.71398002 -12.881354 4278190335
0.75562203 0.35558 -15.772194 4278190335
-0.84886801 -0.70469397 -12.861972 4278190335
-2.6289799 -0.51263201 -16.256235 4278190335
5.7138882 1.168252 -12.262578 4278190335
4.1389861 -1.247682 -23.345152 4278190335
0.73612601 0.239636 -20.560369 4278190335
-0.80470598 -3.1820481 -11.151382 4278190335
-2.184514 1.591146 -14.927504 4278190335
-0.37873599 0.201166 -12.892766 4278190335
-1.105384 -0.305264 -12.896396 4278190335
0.91496199 1.106712 -20.564035 4278190335
-4.934226 -3.017828 -18.468742 4278190335
-2.6378241 -1.1144561 -16.627441 4278190335
2.5893919 -3.660604 -21.740366 4278190335
-1.041474 0.25555199 -12.899364 4278190335
-0.86891001 0.040773999 -12.90018 4278190335
-0.79916 -0.14788599 -12.881768 4278190335
1.292274 -1.268488 -21.043325 4278190335
4.21032 -3.695596 -14.047036 4278190335
-0.66416597 -3.2810819 -18.990475 4278190335
0.055507999 -3.336446 -18.980995 4278190335
-1.675526 -1.130716 -12.76086 4278190335
-1.695708 -2.628582 -11.338166 4278190335
-2.090976 1.065138 -15.817088 4278190335
-0.63844597 0.76512402 -12.732446 4278190335
2.9881599 0.060332 -14.13311 4278190335
-0.66756397 0.148928 -12.896324 4278190335
-1.156716 -0.71974599 -12.86078 4278190335
-2.29512 0.76831597 -15.457142 4278190335
-1.049692 0.25977999 -12.878164 4278190335
0.29968399 -3.0204 -20.496264 4278190335
-2.6314099 -0.16528 -15.566756 4278190335
-1.68932 -2.7665761 -11.223384 4278190335
-1.8404239 1.2951601 -14.09979 4278190335
-0.45626599 0.85524797 -13.245108 4278190335
-1.063502 -0.107472 -12.873262 4278190335
-0.199968 -0.36508399 -12.857146 4278190335
-0.950912 -0.023498001 -12.906402 4278190335
1.338268 0.60280401 -20.194691 4278190335
-0.083246 -3.3223 -10.95389 4278190335
-0.79892802 -3.2220719 -11.097398 4278190335
-1.678722 -1.14125 -12.767904 4278190335
-1.019564 -0.65311599 -13.073348 4278190335
-2.074976 1.06038 -15.817292 4278190335
0.86229801 0.75615799 -20.77607 4278190335
-2.6340461 -0.53042603 -16.103771 4278190335
1.510452 3.501714 -18.476564 4278190335
-1.843254 1.279296 -14.08777 4278190335
-1.685166 -1.5586179 -12.742268 4278190335
-1.13661 0.53669798 -13.10372 4278190335
-1.046764 -0.105272 -12.910504 4278190335
-0.59642601 -3.26858 -18.97085 4278190335
0.60404599 1.381542 -20.418934 4278190335
-0.47431201 0.207554 -12.960382 4278190335
-0.99451399 0.25281399 -12.906656 4278190335
-2.732456 -0.81787801 -13.574846 4278190335
-2.690284 -1.5695339 -13.944562 4278190335
-2.944988 -0.90364403 -16.519421 4278190335
-1.008234 0.26063001 -12.841666 4278190335
6.5898919 -2.9141281 -14.640844 4278190335
6.1462321 -1.426192 -13.200912 4278190335
-2.160002 0.76631999 -16.723667 4278190335
-2.3713181 0.78043598 -14.94358 4278190335
-2.4641299 0.69482797 -16.41226 4278190335
-2.480556 3.548738 -21.926594 4278190335
-2.087666 0.088248 -20.644674 4278190335
6.61058 -2.0216961 -12.827782 4278190335
-2.10817 0.097588003 -20.764172 4278190335
6.5593281 -2.826102 -13.214816 4278190335
-2.3855619 0.74688798 -15.311062 4278190335
-1.5648659 1.02741 -16.360146 4278190335
-0.67179602 0.151814 -12.866418 4278190335
-1.06506 -0.0024860001 -12.90275 4278190335
1.63806 -0.032862 -14.609932 4278190335
-2.6333821 -0.62469798 -16.061852 4278190335
1.403352 0.94083202 -14.135622 4278190335
-0.77803397 -0.105666 -12.906362 4278190335
-0.88993001 0.001824 -12.887622 4278190335
-1.6738501 -1.1340621 -12.769446 4278190335
-0.914828 -0.71076798 -12.851436 4278190335
-1.535068 1.059772 -15.849878 4278190335
-1.6623321 -0.95788598 -12.82663 4278190335
-2.6310279 -0.58389997 -15.13479 4278190335
-2.2283061 0.62173599 -16.226259 4278190335
-2.759984 -1.370028 -15.612274 4278190335
-2.7755661 -0.78798002 -14.824758 4278190335
4.2604599 -3.726794 -14.809716 4278190335
-2.6358981 -0.58429402 -15.136932 4278190335
-2.642838 -0.612324 -14.820618 4278190335
-1.517164 1.000646 -16.322308 4278190335
-0.397122 0.85843199 -13.201004 4278190335
-2.0433159 1.0426379 -16.362442 4278190335
-1.811224 1.26421 -14.431158 4278190335
-2.2710819 1.528608 -14.736224 4278190335
0.99127197 0.679178 -20.535006 4278190335
1.403906 0.93806601 -14.130106 4278190335
-2.3987241 0.75217402 -16.776661 4278190335
1.6080821 -0.036141999 -14.608094 4278190335
-1.102994 -0.30481201 -12.900504 4278190335
-2.6442881 -0.185954 -14.71556 4278190335
-0.57610798 -0.32251799 -12.896992 4278190335
-1.710636 1.633408 -16.661734 4278190335
-0.88259202 -0.71859598 -12.81179 4278190335
-0.95025802 0.75374198 -12.8838 4278190335
-1.9929039 1.345432 -14.365874 4278190335
-0.39688399 0.85147601 -13.207166 4278190335
-2.72684 -1.179566 -14.801836 4278190335
-0.51130003 0.02712 -12.86933 4278190335
-0.80681002 0.036109999 -12.892846 4278190335
-2.635468 -0.34392199 -14.814514 4278190335
-1.083746 -0.124318 -12.874716 4278190335
-0.797472 -3.1314881 -11.208948 4278190335
2.32342 0.164432 -15.276444 4278190335
-2.1851621 1.587806 -14.9236 4278190335
-2.6230259 -1.141016 -14.808244 4278190335
1.359884 0.912884 -14.159526 4278190335
-0.79802603 -3.138088 -11.19625 4278190335
-0.94166797 0.312226 -12.766384 4278190335
-1.2891721 0.39492801 -12.887544 4278190335
-1.1089799 -0.31462801 -12.88072 4278190335
-0.84809601 0.19492801 -12.913052 4278190335
-2.6037879 -0.13829599 -14.803708 4278190335
-0.77577001 -0.29994601 -12.913006 4278190335
-0.079728 -3.2903321 -11.02487 4278190335
-1.682592 -1.134918 -12.762634 4278190335
-1.043216 0.25828201 -12.855258 4278190335
2.343292 0.168458 -15.273572 4278190335
-0.900958 -0.030646 -12.91063 4278190335
-0.79842001 -0.128142 -12.901038 4278190335
4.2459102 -3.7237179 -14.050738 4278190335
1.22964 0.81190801 -14.197332 4278190335
-2.6721179 -1.018376 -14.274872 4278190335
-2.675328 -0.886572 -14.271772 4278190335
-0.45786399 0.864182 -13.23343 4278190335
-0.96015799 0.76806802 -12.859848 4278190335
-0.898826 -0.026149999 -12.91951 4278190335
-1.6848561 -1.157186 -12.745576 4278190335
-2.0048621 0.40842801 -12.688252 4278190335
-1.02772 1.455278 -13.283694 4278190335
-1.121518 0.60418802 -13.273066 4278190335
0.75286001 0.544092 -14.661402 4278190335
-2.494396 -0.96794403 -14.328174 4278190335
-4.9836259 -2.984144 -14.428714 4278190335
-0.81830603 -0.11699 -12.876456 4278190335
5.8673878 -1.66439 -12.472552 4278190335
-2.6446581 -0.47869799 -15.463616 4278190335
6.2677841 -2.821414 -14.328684 4278190335
-2.020426 1.513446 -14.375206 4278190335
-2.0692401 0.968476 -16.653803 4278190335
-1.101034 -0.67616397 -12.8527 4278190335
-2.0669639 0.95868403 -16.652336 4278190335
0.484734 1.086754 -23.14093 4278190335
-2.2098081 0.78431398 -16.767246 4278190335
-0.79653001 -0.140884 -12.901044 4278190335
-0.16981 -3.4444499 -10.334258 4278190335
1.403326 0.595828 -20.404102 4278190335
0.52477002 1.156394 -23.348728 4278190335
-1.68276 -1.158098 -12.735486 4278190335
3.1822619 8.293642 -24.393492 4278190335
-0.99911201 -0.22945 -12.893956 4278190335
-2.5914681 -0.17801 -16.975405 4278190335
-0.614272 -0.28717601 -12.863472 4278190335
-2.334456 0.769454 -15.166342 4278190335
-2.742058 -1.7431639 -23.69458 4278190335
-2.465826 0.70674801 -18.259836 4278190335
6.2799721 -1.914194 -12.962322 4278190335
5.58285 -4.7280822 -20.142891 4278190335
-2.8309939 -1.827384 -23.962521 4278190335
-2.63708 -0.182154 -17.045679 4278190335
-2.265352 0.71202803 -14.654918 4278190335
4.2806282 -3.6945059 -22.074093 4278190335
-0.311746 0.28512201 -24.131504 4278190335
4.4927979 -3.8637681 -18.97797 4278190335
-1.080174 -0.68506002 -12.866186 4278190335
5.2333961 0.90636998 -11.782128 4278190335
3.1458859 0.39740199 -22.652884 4278190335
-1.282342 0.39562199 -12.884646 4278190335
2.2975681 0.26045799 -15.29388 4278190335
2.5775599 -0.136152 -15.563064 4278190335
-1.045604 0.25937599 -12.881038 4278190335
5.6126661 -0.65649599 -12.913092 4278190335
5.8152218 -1.688506 -12.535636 4278190335
5.1221018 0.098895997 -23.63629 4278190335
-2.65925 -0.60812002 -14.393396 4278190335
4.0481 -1.358952 -23.907228 4278190335
-1.011312 0.82319599 -13.268124 4278190335
0.63272601 1.445568 -20.532928 4278190335
5.3632579 0.29812801 -11.746334 4278190335
-2.4532061 0.689726 -16.405441 4278190335
1.31908 -1.2561719 -21.004406 4278190335
-1.061594 -0.114324 -12.83162 4278190335
3.8385301 -1.3011481 -23.560213 4278190335
-2.5668321 -0.134362 -16.608822 4278190335
0.80413401 0.723248 -20.599783 4278190335
0.79763198 0.71693599 -20.616095 4278190335
5.0715961 -1.157266 -23.339825 4278190335
-1.756088 1.156366 -17.859129 4278190335
-1.4723181 0.82025599 -13.373562 4278190335
1.063094 -0.31074601 -20.162785 4278190335
4.281106 -3.763828 -14.089832 4278190335
-2.6380501 -0.54717797 -15.713104 4278190335
-2.6415441 -0.74435002 -16.874899 4278190335
-1.194684 0.84959 -13.244996 4278190335
-2.6465039 -0.75548202 -15.136598 4278190335
-2.6599319 -1.03827 -15.667914 4278190335
-2.3878 0.74643999 -15.457966 4278190335
-0.99914801 0.77295202 -12.841858 4278190335
-1.148926 0.438844 -12.918622 4278190335
1.54417 1.412312 -14.01618 4278190335
1.195612 0.54195601 -16.588844 4278190335
1.6351039 -0.167108 -14.903276 4278190335
2.5616081 -3.647908 -18.395111 4278190335
0.72865403 0.57709199 -14.75612 4278190335
1.9700021 1.35973 -14.18493 4278190335
1.584566 1.440762 -13.995486 4278190335
-2.6083441 -0.209236 -16.009512 4278190335
-2.603292 -0.194324 -15.963308 4278190335
-1.7507 1.676424 -16.697664 4278190335
-2.6550159 -0.161202 -16.433245 4278190335
-2.5698099 -0.142672 -16.383059 4278190335
-1.4930201 0.82714802 -13.38915 4278190335
-2.679486 -0.87368798 -16.002819 4278190335
-0.95051199 0.76232398 -12.855624 4278190335
-1.6793979 -0.96184999 -12.822796 4278190335
-0.59390998 0.74859399 -12.735714 4278190335
-2.691664 -1.249372 -15.643634 4278190335
-2.666522 -1.0423501 -15.665962 4278190335
-2.28019 0.789352 -15.686776 4278190335
-2.742686 -0.77559799 -14.821714 4278190335
-2.646436 -1.031486 -15.66995 4278190335
-2.638236 -0.473382 -15.45717 4278190335
-2.6371319 -0.537242 -15.784794 4278190335
-0.96791798 1.286314 -13.395644 4278190335
3.76226 0.440662 -19.529667 4278190335
-2.121798 0.36165801 -12.58306 4278190335
-2.657532 -0.831752 -15.66486 4278190335
-0.52902001 -3.3152139 -11.095338 4278190335
2.123702 -0.332564 -14.703366 4278190335
1.609304 1.4522001 -13.988408 4278190335
1.290458 0.77448601 -20.791145 4278190335
-0.78909802 -3.1735539 -11.119784 4278190335
2.343776 0.175924 -15.265332 4278190335
-0.45398 0.88093197 -13.183846 4278190335
-2.2117519 -3.70153 -9.9289885 4278190335
5.9082541 -1.138782 -11.541088 4278190335
-0.54930598 0.236342 -23.662363 4278190335
-1.079096 0.086365998 -12.875826 4278190335
6.261076 -1.788226 -12.477418 4278190335
-0.453394 0.26345801 -23.780083 4278190335
6.0000701 -1.129408 -10.06509 4278190335
-2.629884 -0.50460601 -16.062759 4278190335
-2.695184 -0.24303401 -13.314002 4278190335
1.839924 0.81183201 -17.41494 4278190335
-0.82058799 -0.096203998 -12.75128 4278190335
3.8495281 0.18806399 -15.248744 4278190335
-0.65842402 -3.339628 -19.097778 4278190335
-2.7300179 -0.44446 -11.302764 4278190335
-2.2122281 0.58452201 -12.832742 4278190335
-1.5005161 0.83144599 -13.379714 4278190335
0.76931 0.59430999 -15.634378 4278190335
-2.628104 -0.218156 -14.911244 4278190335
0.74240398 0.42745 -15.627014 4278190335
0.771222 0.60119599 -14.667528 4278190335
-2.621314 -0.49444199 -12.91107 4278190335
-2.7527461 -1.147184 -17.21954 4278190335
0.77112401 0.59402198 -15.636762 4278190335
-1.662416 -1.127028 -12.779804 4278190335
-1.73739 -2.986408 -10.790982 4278190335
-2.371434 0.73753202 -15.691606 4278190335
-1.013804 0.82985002 -13.259458 4278190335
-2.0851541 -0.87275797 -12.821122 4278190335
-2.1184621 -1.166712 -12.57146 4278190335
-2.6495681 -1.387032 -12.88155 4278190335
0.75698203 0.35738 -15.772316 4278190335
-2.790134 -0.787184 -14.818094 4278190335
-2.3872681 0.74795002 -15.461724 4278190335
-1.491116 1.5657361 -13.378698 4278190335
-2.7589259 -1.207134 -12.943968 4278190335
-2.628974 -0.34417599 -14.804964 4278190335
-2.580934 -0.150262 -16.374626 4278190335
-2.63169 -0.48928601 -16.403675 4278190335
-2.5683179 -0.80284798 -12.811726 4278190335
-2.62731 -0.788032 -13.21628 4278190335
-1.138306 0.61535603 -13.24805 4278190335
-2.6306739 -1.156198 -12.755034 4278190335
0.75395203 0.41731599 -16.618042 4278190335
-2.6257601 -0.384942 -15.213934 4278190335
-2.782378 -1.21383 -12.916432 4278190335
-3.5385439 -2.411582 -12.234164 4278190335
-2.6807799 -0.80159199 -13.168744 4278190335
-1.96684 -3.3551979 -11.16654 4278190335
-2.0438299 -0.14117201 -12.708914 4278190335
-1.921676 0.82404202 -13.400172 4278190335
-2.6571419 -0.81517202 -16.400925 4278190335
-1.4918441 0.827968 -13.382282 4278190335
1.398078 0.93553001 -14.1266 4278190335
-1.9644099 -3.337322 -11.183424 4278190335
-1.9614919 -1.533518 -12.727792 4278190335
-0.95465398 0.76105601 -13.375278 4278190335
-1.6858979 0.88274401 -13.358202 4278190335
2.539654 -0.133342 -15.55937 4278190335
-2.056592 -0.141032 -12.68015 4278190335
-3.5337141 -2.4175401 -12.25185 4278190335
-2.3372779 0.77695799 -14.478068 4278190335
-1.889482 1.348838 -13.464856 4278190335
-1.531552 0.76968199 -13.527318 4278190335
-1.990368 -0.12864 -12.754026 4278190335
-2.623956 -0.45667401 -11.534922 4278190335
2.92591 -0.13366599 -15.312544 4278190335
1.7905819 -3.488616 -19.007463 4278190335
1.1694961 0.51790398 -16.556618 4278190335
0.74830598 0.351412 -15.770144 4278190335
-2.648644 -0.215152 -17.366499 4278190335
-2.761564 -1.229172 -12.668096 4278190335
-2.0029781 0.41737199 -12.69395 4278190335
-1.668902 0.39541599 -13.171856 4278190335
0.88999999 1.561586 -16.687731 4278190335
-0.65338999 -3.333972 -19.055204 4278190335
0.748748 0.360672 -15.776288 4278190335
-1.729906 0.42737001 -13.061212 4278190335
-1.571108 1.44453 -13.47357 4278190335
-2.1265659 -0.85959399 -12.760744 4278190335
1.540944 -0.067744002 -14.620784 4278190335
-2.0661061 0.61323398 -11.900252 4278190335
1.171008 0.52072001 -16.542988 4278190335
0.95574999 1.649032 -16.783115 4278190335
-2.864192 -1.243158 -12.662954 4278190335
-2.5818441 -0.49324399 -11.635918 4278190335
-2.8681459 -1.072922 -12.921124 4278190335
-3.536664 -2.4374299 -12.327294 4278190335
-3.5519619 -1.73628 -14.729528 4278190335
-1.597634 0.70745403 -17.416725 4278190335
-2.6577461 -0.30491999 -13.239432 4278190335
-0.97452998 1.562528 -13.223126 4278190335
-2.3522279 0.76104802 -16.745411 4278190335
4.2833261 -3.7027659 -22.200726 4278190335
-2.6323941 -0.53744 -17.344175 4278190335
-1.784564 0.489788 -17.035698 4278190335
7.1502781 0.060438 -11.727106 4278190335
-1.97096 0.39145201 -12.77375 4278190335
-2.2495179 0.70296001 -17.886534 4278190335
-2.6270881 -0.47040999 -15.212072 4278190335
-2.6346719 -0.74240601 -16.873835 4278190335
5.5055881 0.053824 -12.511006 4278190335
5.237206 1.056636 -11.1762 4278190335
5.28231 0.25922999 -11.894576 4278190335
-1.171792 -0.72978598 -12.708246 4278190335
5.4436002 0.31312799 -11.715698 4278190335
-2.558888 -0.184706 -16.938705 4278190335
-2.368094 -2.8727541 -20.575357 4278190335
1.241528 0.083311997 -20.637646 4278190335
0.56137002 1.219684 -23.582378 4278190335
5.6598039 -1.345912 -23.128553 4278190335
5.3689542 0.29764199 -11.702318 4278190335
-2.608644 -1.379612 -16.607998 4278190335
6.7080579 -1.549754 -12.871092 4278190335
-2.633378 -1.571596 -18.182281 4278190335
-2.6019599 -0.45378199 -17.905582 4278190335
6.0907202 -1.053712 -22.660114 4278190335
6.3122802 -1.4795541 -12.532324 4278190335
-1.087092 -0.1311 -12.86103 4278190335
0.64888602 -0.77894998 -20.657274 4278190335
6.600996 -2.8669479 -20.318745 4278190335
-0.88015002 0.042950001 -12.864954 4278190335
-2.147378 -0.10372 -20.083267 4278190335
-2.577534 -0.232834 -17.454521 4278190335
6.276278 -1.452276 -12.545392 4278190335
1.406698 0.42701399 -14.029822 4278190335
0.062325999 -3.349802 -19.021505 4278190335
4.9241738 -3.7421861 -14.041236 4278190335
1.546882 -0.013644 -14.589128 4278190335
-0.97649598 1.562326 -13.26269 4278190335
-2.4818859 0.72140199 -16.398039 4278190335
-2.070128 -2.0530059 -12.384442 4278190335
-2.666682 -1.2439359 -16.393259 4278190335
-1.004254 0.81411999 -13.293754 4278190335
-4.9670839 -3.0374241 -18.458372 4278190335
-2.6032219 -1.3387541 -13.765524 4278190335
-2.6519561 -0.86385 -16.003206 4278190335
-2.5988419 -0.333002 -13.594926 4278190335
2.012078 -3.609782 -18.342718 4278190335
-2.6273701 -0.57935202 -16.950678 4278190335
-1.872032 1.288066 -18.068605 4278190335
4.1414018 0.097421996 -19.362473 4278190335
-2.640866 -0.807814 -16.394392 4278190335
-1.99921 0.64164001 -13.443184 4278190335
-2.698792 -1.4256639 -12.773058 4278190335
2.2910459 0.25943199 -15.28626 4278190335
-1.970832 -3.3464861 -11.16371 4278190335
-4.8094821 -2.9389861 -18.377407 4278190335
-2.4931779 -1.055124 -13.815798 4278190335
-1.9582779 -1.5307961 -12.722586 4278190335
-2.064194 1.056488 -16.37454 4278190335
-1.694622 -0.67590201 -12.768694 4278190335
-2.0531759 0.94644201 -16.644094 4278190335
-1.708522 -2.8606961 -10.957602 4278190335
-1.665622 -1.559304 -12.682504 4278190335
-2.433424 0.70295203 -15.224994 4278190335
2.279294 0.25759 -15.288486 4278190335
-1.976786 -1.94994 -12.528728 4278190335
-1.5095659 0.58679402 -16.672676 4278190335
-1.708346 1.110738 -17.728409 4278190335
-2.62708 -0.660402 -15.785456 4278190335
3.2107241 0.088955998 -23.881111 4278190335
-2.529212 -0.21096399 -16.587963 4278190335
-2.635216 -0.81132799 -12.725734 4278190335
-2.6025159 -1.391766 -16.411007 4278190335
-2.6928041 -1.24963 -15.650572 4278190335
1.322854 1.398352 -20.50975 4278190335
6.9648819 -0.188336 -19.031034 4278190335
4.9199781 -3.757524 -14.737478 4278190335
-2.573318 0.68962801 -15.005078 4278190335
-2.11075 0.73433 -16.677197 4278190335
-1.9137779 1.333636 -18.156752 4278190335
-1.6251841 1.597302 -13.351058 4278190335
-2.7597799 -1.206308 -12.970234 4278190335
-2.650552 -1.035874 -15.678996 4278190335
-2.657012 -1.043058 -15.998246 4278190335
1.57798 -0.047770001 -14.618104 4278190335
4.3868141 0.012102 -19.412186 4278190335
1.7016799 -0.079124004 -14.671014 4278190335
4.8804359 -3.757452 -14.731346 4278190335
4.1271219 -2.5842941 -11.92017 4278190335
3.868784 -2.4058299 -11.873232 4278190335
-1.559088 1.043058 -16.371519 4278190335
